132.9556964495988 50.321967857137395 133.9236887927148 0.07712634614865053 -0.99298150923158 0.08966185952751618
166.56667389983178 151.09371792088578 188.78106079740908 0.5123889393917609 0.3120139590894301 0.8000655373919849
72.06618500673756 181.24233971287504 128.72422526343618 -0.7113936155563643 0.7024390017207336 0.02232873949023787
55.767195393590995 154.90234921186786 116.49881643031922 -0.9224657421187388 0.36133578362947244 -0.13599046321782926
56.94325636875176 134.58972870967276 95.41872247835549 -0.907235737260402 0.09828708507734743 -0.40897795288324923
64.12224421437892 167.56278199354577 146.07817979545933 -0.8142677516915447 0.5252885521049697 0.247062675413874
84.06296605624303 129.5552568537051 62.868804950131675 -0.5560351456067983 0.03309060934609011 -0.8304998063956013
90.0262362286187 119.51669138864398 194.3785521127109 -0.4788107196501074 -0.0969089434260039 0.8725531224127284
195.6039219553923 160.04700247506324 114.18103281260119 0.888421677744008 0.427959110011179 -0.1660057910826058
52.35483510961001 109.72975548300441 136.63153221505655 -0.9666558519864025 -0.223649890144983 0.12472846691344915
74.83675467366984 95.82300428878924 174.64366878661048 -0.675514702490678 -0.4037424982026776 0.6169861277727334
113.36496398318732 59.2930505825414 92.46330656530762 -0.17657389299161716 -0.8768058717619607 -0.44725062722989356
190.11096269416737 82.93003862747766 120.85400191670999 0.8172877841772516 -0.5707065704807348 -0.07959075476936041
136.4903650733467 178.95011240753274 183.3386829063239 0.12290035060019043 0.6727546284321775 0.7295866732235677
152.8574950092265 164.1416982375851 189.568463333184 0.3348548952243787 0.48098547316220047 0.8102624104271432
164.59732585510113 101.42703411349923 64.58691720229474 0.48688585670941625 -0.3311702394004244 -0.8082502304805136
173.11667473599806 145.43909492244867 186.12850826576877 0.5972115350427101 0.23878651803222828 0.7657149477566533
153.16161636978046 76.98349369980687 74.30420010624019 0.33879327078192767 -0.6477144043019054 -0.6824112910354806
137.12733077011094 109.1105156893061 201.43340595841494 0.13114906462200138 -0.23166905349253947 0.9639135710750446
119.71565783144231 177.6013169551172 69.12622803394322 -0.09433232541514748 0.6552877098564777 -0.7494660964265318
148.08685617606673 200.52762818952866 137.581152556896 0.2730750605551246 0.9521837372381334 0.137026062637866
65.90303789341755 165.60938187643328 154.1920071430296 -0.7912064504866932 0.4999919952918063 0.3521368446390778
162.02693222239495 195.52611522539428 120.65855290933219 0.45359922587924034 0.8874140795829353 -0.08212182194597017
191.1517469100159 138.64637397086133 168.3744334308533 0.8307659532506589 0.15082069374334792 0.535799448728999
188.19526950251793 109.73215716056536 83.1834620926438 0.7924795325371398 -0.22361878838946692 -0.5674247333249963
179.89330311533394 173.7849061753529 95.75260907351091 0.684968960312535 0.6058651408359605 -0.40465411715215077
53.52772338445574 127.8606570074045 150.7489418384178 -0.9514669336382319 0.011145519391407689 0.3075491043566151
121.20096565658613 60.0038307196467 89.04195865903839 -0.07509756984477936 -0.867601259781835 -0.4915571269225799
147.48223679730583 195.43810294915065 97.68051090996727 0.26524523177034237 0.8862743194658204 -0.3796877634036872
101.39493642114442 68.72146681831404 170.71409028349888 -0.3315859049320847 -0.7547077594105926 0.5660980352693457
72.81156512325846 179.88381798966054 111.83940237175338 -0.7017409333947363 0.6848461278122319 -0.1963299356157294
165.86549796122415 88.47240903229275 181.47959436753473 0.5033087019065549 -0.498932801964611 0.7055114525710274
164.96397094237483 96.16913441570468 186.75887413271465 0.4916339153376695 -0.39926010857673305 0.7738781938968486
146.70114723549864 55.400619250349294 148.17361267879792 0.2551301118298191 -0.9272129079208846 0.2741985583889915
145.25349053117688 106.683610174764 199.22868396902496 0.23638293876167932 -0.26309751133431747 0.935362392761266
69.76506954092112 95.06424559435828 167.83134489441832 -0.7411930906381622 -0.41356843312149344 0.5287664451491624
102.67866626529005 199.55537885166245 116.65021135208093 -0.31496158682608083 0.9395930957221242 -0.13402989702044907
85.15424656417908 66.76493768116264 102.84221477795904 -0.5419030488969299 -0.7800448370737809 -0.3128436314690618
118.30193074813997 203.71649396832674 128.36071470100552 -0.11264010945169693 0.9934795903694217 0.01762127299929438
174.43344935544033 180.53161798070272 156.109485715364 0.6142637834167357 0.6932351460852465 0.3769682169821808
118.4166335216243 112.97992509128588 202.44992855829582 -0.11115470704967223 -0.18156015162799957 0.9770775519074826
152.15090219218126 59.713020448532504 155.33412962770745 0.32570450909325643 -0.8713672565587606 0.366927345606157
147.96223376874204 58.4372412921967 98.31792765855033 0.27146119876640823 -0.8878886131546659 -0.3714332082549815
136.5920576285747 165.20845795367416 60.58438006573745 0.12421727050731304 0.4948000253001058 -0.8600831382318384
51.418132955964566 130.5377288696796 111.57942126305291 -0.9787861570064159 0.04581363467598539 -0.19969669434015927
54.5486613774287 101.2412234303291 134.08642091829722 -0.9382457734080718 -0.33357649015372837 0.09176924266119163
131.06870677463405 157.30159592014135 56.09028761957555 0.05268980542131638 0.39240605957189006 -0.9182816936081902
60.82516659770596 158.60885419599296 151.180574033614 -0.8569649495246574 0.40933507117318 0.3131387468740481
156.44008476074933 99.76930880802594 61.009854777495434 0.3812494789011826 -0.35263780357386765 -0.8545732352046693
54.66642251992934 137.04108186957626 152.09897694773795 -0.9367207650876802 0.13003214024315268 0.3250320765052829
156.92359669049625 197.1253028720228 139.24535251479494 0.387510964652891 0.9081235803162755 0.15857747364406832
74.5779397455344 154.23962193853984 77.2721507068464 -0.6788663591616887 0.35275345685754794 -0.6439762923226314
204.09461031964946 124.14624126584712 123.65253517589078 0.9983762020156624 -0.03695621256349227 -0.04334971282192728
198.97116157054393 120.65119223067497 154.25386104930493 0.9320274743660182 -0.08221714282990211 0.35293785352635226
59.813798756950106 150.46238893664426 97.02569320377809 -0.8700621761596723 0.30383824056778364 -0.3881676611787349
135.88373362224394 70.45240425140338 178.83027196515863 0.11504446545252434 -0.7322920972364235 0.6712026931514975
121.22665671005606 82.82383225142058 63.928111568577314 -0.07476487036964444 -0.572081944426048 -0.8167817719686957
82.45406717232434 185.01779925681825 151.74920681370912 -0.5768704069888068 0.7513312517070483 0.3205025487400818
69.97375110247316 75.97374261391423 116.64353371819112 -0.7384906617136344 -0.6607906939405047 -0.1341163724657974
158.87379315829938 89.80322279107378 186.69413266788834 0.412766034166011 -0.48169874655434125 0.773039791088945
167.31159079019884 141.62704671802848 191.21801579208258 0.5220356227686977 0.18942044441891331 0.8316241361316056
85.55457049111183 111.24148750020608 63.77916437899907 -0.5367188488589506 -0.20407294094527229 -0.8187106400026021
83.37704003492675 181.03979428376735 160.7589454464105 -0.564917896465595 0.6998160357908231 0.43717878070979693
100.41935279389537 82.86697549570198 69.47892784198442 -0.3442197255387804 -0.5715232388538981 -0.7448986293449311
132.98559067869925 64.65934348804106 172.1745907550364 0.07751347680263225 -0.8073123091421773 0.5850115352892568
109.65655419550461 68.20461669677327 80.04005760381324 -0.224597847766063 -0.7614009751777613 -0.6081318621624808
178.23552968708194 150.7323861126319 74.32531208364779 0.6635007729484841 0.3073347074932908 -0.6821378906546517
160.98026797675647 65.4804360474966 158.9939531680857 0.44004491034390636 -0.7966791498640691 0.4143221078488179
73.7611248247137 182.54221922554024 120.39602744006963 -0.6894441229640805 0.7192724582432044 -0.08552153017262844
111.54914490326533 149.90111705808485 199.1092110223902 -0.20008877359148752 0.29656976247196126 0.9338152165551699
164.33577827080273 170.86418676255454 75.57139725237337 0.48349881210570755 0.5680417866168679 -0.6660010715828365
189.5787870520926 106.79236535452337 167.47808435590525 0.8103961027207017 -0.2616891303480527 0.5241917166006896
203.6114263370207 118.03352997014998 130.63595514425757 0.9921189631833812 -0.11611590300246072 0.04708566620380164
117.0864774624156 53.07064351231942 107.02249464486998 -0.12838024524196315 -0.9573861239015874 -0.25870895305788677
95.00837022465225 92.36176099382617 188.1527302977411 -0.41429201988277314 -0.4485656436955949 0.7919286492843964
197.30051761626515 153.60297514543973 109.3068562347923 0.9103926135232473 0.3445088726423173 -0.22912644088588052
184.33858645357577 166.91258725513438 94.10318735641546 0.7425354371092432 0.516868521822512 -0.4260141497485695
52.20570397062079 107.82128670402139 127.95845593547234 -0.968587102167563 -0.24836458554750845 0.012412016776383625
85.65418252562012 88.38720082130007 74.44047643898726 -0.5354288717220912 -0.5000362494004135 -0.6806465107616257
128.2312470713121 178.2525377019873 184.74590729874936 0.01594466551815719 0.6637210269617626 0.7478102473290514
153.2347136208405 184.21619506356632 171.73226155338466 0.33973988112976566 0.7409504670236506 0.5792833663996979
202.9024269252044 129.74255112908398 113.06341504641959 0.9829374116188088 0.03551607263771013 -0.18047895562782196
60.80229028715557 129.38912053097445 166.68732457425745 -0.8572611980425334 0.03093914181526105 0.5139513671880009
77.29618661730058 141.20227844999982 69.63490066210588 -0.6436650269709844 0.18391968984718776 -0.7428787793045082
100.96742574812887 99.41138030589148 59.73855828786701 -0.3371221736839047 -0.35727298231168764 -0.8710365412086635
95.764529655774 74.18775691150759 173.88433397561454 -0.4044997454574722 -0.6839192319152085 0.6071527321369405
195.89099383756923 116.05493701750419 93.87651944041511 0.8921392623357838 -0.1417387073620282 -0.42894950219612654
179.64416168574215 91.55861250107972 170.9935073909414 0.6817425755729364 -0.4589664270774447 0.5697164904291817
144.94302989738247 186.39057503490548 172.97538118520495 0.23236246953357242 0.7691087158107419 0.595381781730186
52.22955318875934 135.63877172992972 144.25341434747332 -0.968278254483821 0.11187220577479562 0.2234319392317187
198.37058268809244 111.62644191339305 152.1559543353037 0.9242499700607669 -0.1990877763093363 0.3257699344121175
52.42982945848301 120.99882892085083 146.13645764209915 -0.9656846741973192 -0.07771524319022503 0.24781737428255815
200.47315112831382 138.3479928136965 106.12303847835481 0.9514782585899224 0.14695665389402335 -0.2703569220622273
67.01606193175152 78.39529349249742 125.43856503687513 -0.7767927747765925 -0.6294315787037371 -0.02022060299307006
138.9431360049129 197.118870943806 96.9394970112935 0.15466376592738795 0.9080402867625744 -0.38928390298765214
204.07833814502095 127.88968072250715 131.58984280927015 0.9981654771434983 0.011521376877844533 0.059438523818572155
175.34505825914627 180.34956454839516 99.08033480830454 0.6260691305250746 0.6908775517792693 -0.36156002579248203
63.519968456748906 169.63641508963164 137.7401165530211 -0.8220672305523322 0.5521421275528572 0.1390846484462717
156.81257414343 82.3391453447243 182.49366526372924 0.3860732212306397 -0.5783586461444664 0.7186436838089774
88.61773362753125 176.8864134002841 82.26661441195392 -0.49705084657431686 0.6460296995633787 -0.5792979226631194
139.52817559635102 99.92670400425025 198.22506483081298 0.16224003621278188 -0.35059953374449293 0.9223655119245403
195.54530897046277 161.03159804366683 137.31112761719513 0.887662638830132 0.44070963537512076 0.13352923617191315
92.65367778862243 69.50430491471825 88.56169102038257 -0.444785317422657 -0.7445699959243947 -0.49777659906264493
56.76683764016836 159.08686360830924 126.18483822508185 -0.9095203620801817 0.4155252992529039 -0.010556355541545668
154.42183701943506 143.18904949217114 197.34831860833333 0.3551131445148284 0.2096484005720166 0.9110116369895535
118.97779318892114 132.73430957265822 50.412205335280746 -0.10388768209115343 0.07425938322530724 -0.9918129327210471
134.9295136807811 193.93001894371537 89.31149011992903 0.10268730485342016 0.8667446120657262 -0.48806669101361005
156.29497398257968 126.4355671069435 198.44518398653065 0.3793702924446994 -0.007309413274494987 0.9252160578416296
139.47417734286125 202.42264437196127 137.89715630609695 0.16154075813081148 0.9767242213411196 0.14111831528227073
119.903244089951 163.19203995106093 194.84320673239137 -0.09190308093821538 0.46868738605362514 0.878570405754874
102.76138387372836 88.98850480374895 189.69405172126483 -0.3138903927256104 -0.4922493550408061 0.8118887816791612
139.57763592606068 200.62183408098156 146.61012547292572 0.16288054812303374 0.9534037047524159 0.25395137882576696
64.8351807040203 158.97363778831914 159.80472722763534 -0.805035214918152 0.4140590234177564 0.4248216424195202
71.25253588857107 82.23622292351106 156.17795241258966 -0.7219303821733868 -0.5796914928320245 0.37785486159789783
126.02485362161654 203.74720164241052 135.47611524225024 -0.012628158228224003 0.9938772551464713 0.10976580215294283
53.67965812406234 144.16788286631677 144.09735842415571 -0.9494993767927695 0.22232430544310755 0.22141101300382957
185.54323723194915 175.95021911769894 138.81075030355754 0.7581356802894218 0.6339059714801726 0.15294936938043938
92.60754393779902 59.1853061486662 140.4630852281134 -0.44538275138825395 -0.8782011635759363 0.17434712805119676
105.22725672999158 184.92522912144597 173.19030073214822 -0.2819573073039164 0.7501324672551924 0.5981649926463121
186.62796922952415 114.32579089426417 174.400401993095 0.7721829737053116 -0.16413117205045105 0.6138358196463995
59.855799545137685 128.33565036468448 88.88437612499848 -0.8695182654087324 0.017296689519353686 -0.4935978227790924
61.4630954357456 91.33560470701893 146.89707135539797 -0.8487037628108574 -0.4618543808984858 0.2576673317197353
155.24122993075483 63.24820694273338 93.81762193600812 0.3657242933275684 -0.8255865456781484 -0.4297122256409203
97.8937154774731 149.15473193347063 58.99323229082441 -0.376926761493485 0.28690406544251 -0.8806885225223464
87.66502511555981 60.844276028556706 120.7463341427077 -0.5093884341419345 -0.8567174821476727 -0.08098505383698917
168.9512011429394 62.48593008956662 120.6000073237265 0.5432685980696633 -0.835458040798153 -0.08287998803772982
56.82927741150239 96.36785783878524 116.96655801714876 -0.9087117662328102 -0.39668663767436885 -0.1299332036111272
70.64030920041338 158.9670809150348 84.99262694780107 -0.7298587257133724 0.41397411182381266 -0.5439960250220012
170.83675083680072 63.44514270927267 128.43101042188167 0.5676864910230605 -0.8230362249511438 0.01853160349497125
145.3403676006599 110.63763974190735 53.79595309645063 0.23750799793654354 -0.21189277723507707 -0.9479933553943197
97.51616642091668 179.16109026467683 78.28806491339978 -0.3818160266651557 0.6754867944143594 -0.630820190191663
84.55479225753186 63.95665935604089 113.3299619551204 -0.5496659899309524 -0.8164120777513483 -0.1770271697083606
198.5426938855686 99.4674586149352 117.69782194991313 0.9264788122969257 -0.3565467674833568 -0.12046332621195116
56.95770193947148 144.57104628012667 154.35440028627437 -0.9070486669325114 0.22754527687291734 0.35423983794709085
86.47874599307241 155.11742090698206 67.58310833402962 -0.5247507641404764 0.3641209648663827 -0.7694495165238331
49.92841800183001 123.38983342464243 123.85892604392556 -0.9980779849542863 -0.04675170390258449 -0.040676948408112416
76.15894484593053 88.01666463203965 170.10933859861456 -0.6583923226375222 -0.5048346978497844 0.5582664931185516
52.42750510874829 115.07364288111384 110.88685593786765 -0.9657147745564842 -0.1544464791360548 -0.20866542427003817
135.49529119310702 60.86667092283791 88.04950304917656 0.11001413096486698 -0.856427467976717 -0.5044094399226035
108.6386653152814 58.713519794632106 158.0281551136649 -0.23777952194662774 -0.8843108029703172 0.4018150105369708
72.13910342262247 145.20820256450585 75.79773651393711 -0.7104493211263602 0.23579645900680976 -0.6630699752144897
98.96565540912023 189.40240323190403 91.18179242001821 -0.36304512549701856 0.8081119299650871 -0.46384625200701607
150.10306558574098 87.68963034130583 189.3207156396472 0.29918499852034414 -0.5090697961498857 0.8070540745875059
186.5377535946495 161.45543026869842 162.08571820415912 0.7710146800653911 0.4461982681779125 0.45436050510436576
146.74934054212352 95.946911999186 59.11334686578711 0.2557542157747154 -0.402137891748433 -0.8791330372210943
177.2270426762518 137.43409892865142 184.71743379209695 0.6504408530983139 0.13512171624775235 0.7474415150491707
71.20403821665428 86.8084543486642 91.86627394044271 -0.7225584276527546 -0.5204810366658353 -0.45498220745347445
129.7032747789273 191.13523054492046 169.92193970942503 0.03500744339455197 0.8305520661087861 0.5558396750767293
89.09895934607928 180.76040720787296 167.4506876850509 -0.4908189672872406 0.6961979695399244 0.5238369293583385
110.95425179568795 201.26252277268878 113.1963745342139 -0.20779264703848807 0.9617006316069512 -0.17875712853905842
167.7237279971105 162.8495719206107 72.0517100254583 0.5273728049353859 0.46425242062432925 -0.7115810667513818
185.70435680035277 121.93189068205363 77.08966879895286 0.7602221807867491 -0.06563208129948682 -0.646339435392996
159.87855815909512 141.6751502298305 58.68771136090588 0.4257777539380356 0.19004338551969052 -0.8846450225212914
154.22903783031094 95.00175391866583 191.7890434144067 0.3526163925189193 -0.41437770113097866 0.8390189512355181
76.98500728376136 68.37557179251255 131.9603750805504 -0.6476948033700938 -0.759187104474067 0.06423692153004915
90.3046500301684 136.0478304683296 194.33881833242953 -0.47520525731457663 0.11716952173439014 0.8720385694435316
71.57741810882493 153.42604223009113 173.82873165663827 -0.7177231532138703 0.34221758909726907 0.606432681386147
184.60095470667903 147.29026796471086 79.74152517484995 0.7459331093846027 0.26275923290223846 -0.6119978609835541
155.81844598800666 59.94649677545689 101.77593854763806 0.3731992487439349 -0.8683437351015683 -0.3266519224600095
111.43854941005966 196.59792687978023 97.38753253148919 -0.2015209866607139 0.9012940543872082 -0.38348183719905227
114.17189164603958 175.39901077023507 185.786935559882 -0.16612416930795665 0.6267678162423602 0.7612915767920491
95.41344502033253 186.02910331805361 165.48094211402568 -0.4090462960329897 0.7644276523964468 0.49832869870533114
165.13218347405214 76.7313581555119 82.48114297725283 0.493812269801245 -0.6509795628656838 -0.5765197749643509
165.67019031006777 75.83038144052641 170.002498972282 0.500779465294843 -0.662647222992406 0.5568829185739707
73.08468907727232 71.76090643530821 124.82970272616268 -0.6982039746532983 -0.7153469770097356 -0.028105377801571137
140.95961284282575 51.09895601552047 129.66254227093557 0.18077716709176067 -0.9829195025185125 0.034479956888572715
187.14090892386346 172.87988692701163 111.4746835981939 0.7788255493895812 0.5941451298499304 -0.20105304845643743
131.79165144408552 98.78077365956219 55.28079935480642 0.0620519482528557 -0.36543934654801624 -0.928764577119834
99.36499159522717 64.14718507291052 91.66222465676182 -0.3578737167155249 -0.8139447672505761 -0.45762464831958266
122.76995246440573 95.92585760555747 197.56509599154896 -0.0547791703651161 -0.4024105464185773 0.9138189069094661
108.78205725706272 94.06221433398301 59.574950963053894 -0.23592259444363214 -0.42654475091967087 -0.8731552581837102
60.83253404028402 89.21279678534984 114.47314398244478 -0.8568695410478631 -0.4893447709744905 -0.16222294765028775
182.12533750179412 179.55814693430312 114.28124392302875 0.7138738345220683 0.680628683427909 -0.16470805590483356
168.92026773456348 174.45753706444629 82.80269545731066 0.5428680100306069 0.6145757195602988 -0.5723556661834931
154.18042552955 171.62461019254758 183.85769106458477 0.3519868625945354 0.5778892798827712 0.7363078355942084
58.59417864895484 157.94954976534277 108.9529122955679 -0.8858562723523072 0.40079707025825906 -0.2337100194824153
103.32185101375634 189.42285689947997 165.80284264190314 -0.30663233600419126 0.8083768052250707 0.5024973147099603
189.09300975313977 100.23536510061618 89.70333984792774 0.8041052804084405 -0.3466023685493891 -0.4829922319615677
152.9452038360547 55.0386103125842 116.44854549545619 0.33599072566763394 -0.931900928352963 -0.13664147247531488
187.83370179892955 152.99391154262776 87.16903606297033 0.787797226093364 0.3366214910985204 -0.5158114987960329
184.75637702779105 160.90423773290127 88.56002111896309 0.7479458304557246 0.4390603177013892 -0.4977982243076523
165.7345932853495 125.28091495980433 60.2197302368197 0.5016134846587604 -0.022262173532707315 -0.8648053582385432
195.36722373811781 99.27662706095688 104.1906661380725 0.8853564327650585 -0.3590180385786469 -0.29538116889313
86.38019097692452 181.0381388256533 89.67924080101938 -0.5260270528758803 0.6997945975868078 -0.48330431493111403
106.59112422248492 71.95356872162243 177.16270121328012 -0.2642952056140259 -0.7128519979069874 0.6496076303196079
100.77325867097446 64.17198898018418 163.43799487560045 -0.33963663984752057 -0.8136235563301712 0.4718725055115314
175.51819921014 71.15383592382423 149.1386246949088 0.6283113080826211 -0.7232085479950241 0.2866954764945454
51.434840806037684 140.2133935793486 118.1545861539235 -0.9785697901316021 0.17111361796618235 -0.11454822385491442
120.95339573049107 202.41691655558654 111.55151547705559 -0.07830360359374423 0.9766500460448918 -0.2000580746302047
76.6739917658731 179.16621907933566 153.62530529750495 -0.6517224583544018 0.6755532126306095 0.3447980484007375
145.43209360992955 94.38650283693245 194.52441134841072 0.23869585094443865 -0.42234521060693536 0.8744420014039204
127.30284512699822 129.13168238072726 49.81002257380334 0.003921848316475211 0.027605314435732303 -0.999611207280454
202.06335215302752 139.10570356693927 140.48604852059984 0.9720713824530889 0.15676901796088133 0.174644502986271
69.08554490414343 174.7819968188316 145.04785502366354 -0.7499929434842861 0.6187774775813469 0.23371995627639922
183.20660569155146 81.29803944382341 153.74091767228896 0.7278762715818629 -0.5918409810434678 0.34629523015137204
179.53605406190908 118.4915767970628 71.04914515216157 0.6803425804443031 -0.11018419066222743 -0.7245642948438026
93.95061436699201 64.76440192725323 158.58159023558255 -0.4279899719374254 -0.8059518009938716 0.40898200253279654
93.2134000530659 86.80007967643593 70.38409702208281 -0.4375369068497034 -0.5205894887796436 -0.7331766767407043
155.72225784495464 195.2973629757363 148.75845846673124 0.37195361104577346 0.8844517349875198 0.2817723189164886
128.72471370482404 57.786172721029956 92.80351076450549 0.022335064812536127 -0.8963199595826217 -0.44284497844463244
53.875342568299416 102.74743200749897 121.75349437572487 -0.9469652607057834 -0.31407106957395786 -0.06794231577667863
151.88200750991825 196.95215778751776 105.77478567489625 0.322222319475761 0.9058813492297043 -0.27486680037689387
85.8805495946222 147.13362027396698 64.8167503822502 -0.5324974152470578 0.2607306432785159 -0.8052738878237475
139.0104812614386 80.57163086904609 66.47658899476568 0.15553588787151781 -0.6012479814938346 -0.7837789562967407
113.86273931721726 126.13227990445245 50.910658804347676 -0.1701276959697325 -0.01123698647432735 -0.9853579538416515
122.34019339820892 156.8290183536094 55.92648688509948 -0.060344555837750294 0.38628617396541565 -0.920402915240877
66.23670849577854 89.2708873490059 97.8921855141681 -0.7868854118650797 -0.488592497422871 -0.3769465745380976
91.57940509186477 81.13057910275364 178.0324022842845 -0.4586971627575141 -0.5940095946289349 0.6608702704517546
203.87322347556935 132.41622622629106 122.09078357160634 0.9955092395178626 0.07014019977066897 -0.06357441632211433
56.4212099768811 108.2302548425228 152.08504466003305 -0.9139962447956346 -0.24306844285777265 0.3248516531990812
166.64176062310904 63.586323943347224 146.2396700512775 0.5133613134305753 -0.8212079261415796 0.2491539763180199
88.8836254683545 88.31400191501 181.89502659377692 -0.4936075437923532 -0.5009841761847967 0.7108913052807164
64.16563316677616 82.84186825573808 118.94828306978758 -0.8137058641961129 -0.5718483779365698 -0.1042698385160893
150.08261683898584 74.33666577728465 178.54313172878756 0.29892018698505374 -0.681990860175024 0.6674842233720221
191.32959606420278 154.20610665101964 159.9311286036457 0.833069102100528 0.35231943345013783 0.42645854187575377
172.33251883184653 120.73500097740899 64.80160031313335 0.5870567059291185 -0.08113181847437205 -0.8054700814150045
100.07856200848562 57.08564356232958 145.71222435669847 -0.3486329706230819 -0.9053918212596532 0.24232354774279277
101.06292738011939 77.47005590213992 180.26332041446437 -0.3358854263128801 -0.6414134174807056 0.6897606891280027
55.65663357610205 142.3232459528523 101.73637791658079 -0.9238975190869976 0.19843623352567058 -0.32716423314451193
76.87515573664312 151.22268080360433 180.5134573940137 -0.6491173823278539 0.3136840300907061 0.6929999662524435
83.13711133401281 149.9782367565431 186.2534896308687 -0.5680249762495102 0.29756846356569694 0.7673334580532079
131.1834579331654 120.9830970494568 50.12852311419287 0.05417583441032656 -0.07791897112850549 -0.9954866211578235
200.4822332677639 130.6901675239157 103.55490546772373 0.9515958724134149 0.04778771722242554 -0.30361427780725564
161.23475942545357 58.170777907230175 119.68919750058281 0.44334057790020176 -0.8913393174406866 -0.09467498704243976
113.62091389732247 200.9034050434891 144.950353145137 -0.1732593382890123 0.9570500523632363 0.23245730568683004
94.91467385077178 191.98993887859754 100.3585268715522 -0.41550538913789475 0.8416205500983882 -0.3450074220208211
110.90822396115257 88.62198429502943 192.04699112537497 -0.2083887080917824 -0.4969958003751692 0.8423593774329832
173.0670012924496 91.33433972570313 177.68254600076725 0.5965682633054856 -0.461870762422907 0.656339627049563
140.0536985538351 121.52637667868704 202.91158542542752 0.1690455653177296 -0.07088349289449566 0.9830560143153009
139.02347516211427 156.6407434184505 197.2836451432878 0.15570415905353868 0.3838480111169451 0.9101741147796919
75.7476033669249 79.27235784948516 94.47013043188844 -0.6637192001175226 -0.6180735839227511 -0.42126223216927705
159.83987820874592 101.55556204174377 192.09263688177938 0.4252768480801078 -0.3295058010652193 0.8429504905695335
170.61005289885992 188.87014850169135 142.27011494839837 0.5647507497909857 0.8012192243161271 0.19774818632994523
70.7005280424962 127.4339684098918 179.8498772820284 -0.7290788909285651 0.005619896527995389 0.6844065952088627
201.9442430257468 144.4382169438753 133.49595467319025 0.9705289177123388 0.22582513524832037 0.08412269714051095
91.25040593826972 187.2308331718674 94.4862850500873 -0.46295770605711306 0.7799900695657526 -0.421053029654399
151.83117305540262 134.1410397827147 54.230866464452575 0.3215640126314764 0.09247655766271295 -0.9423612216465609
202.41531352505154 138.26112561883994 114.80795604851737 0.9766292867787042 0.1458317225957 -0.1578871270588271
116.95886906594647 115.1697903514782 51.35510440725551 -0.13003277562876883 -0.15320136814972554 -0.9796023775284187
189.69966662388484 123.14959533138094 171.9094042394416 0.8119614947408035 -0.049862790321407176 0.5815773664781354
167.51201594939283 68.70545410497851 96.61166535314293 0.5246311311757682 -0.7549151242556525 -0.3935293272061263
142.31515697434247 83.98155067754959 189.2718827782091 0.19833148114921598 -0.5570894758152085 0.8064216883994964
116.77219534553208 76.89818322844502 69.13698618167581 -0.1324502027255622 -0.6488191760108131 -0.7493267782740765
104.71671582016465 197.8822313397635 148.02600595588586 -0.2885688186976864 0.9179258137757512 0.2722870494157712
98.23940303045724 106.97397087547682 195.8092625992989 -0.372450103205682 -0.25933733649991164 0.8910808417417627
147.13869513638798 150.41896108054843 197.77367886517825 0.2607963628125872 0.30327584926895146 0.9165200578241163
96.53219891509052 171.30227765314677 182.42517200509064 -0.39455841860799634 0.5737150693233201 0.7177566952226189
197.3984799440937 158.3521858703552 122.09868765413412 0.9116612269372403 0.40601121303231297 -0.06347205835102139
179.11195477798503 98.41246573902639 176.2952883559362 0.6748504892253955 -0.37020893888854717 0.6383746225839966
124.65747078376548 194.39704821207954 89.38246620032474 -0.030335783686020818 0.8727926471390774 -0.48714754985334446
172.9108773909853 188.70695962123835 133.88265003416373 0.5945464567597162 0.7991059262009631 0.08913040707282745
160.31631709391235 196.61864731283015 129.48904833815033 0.4314467378129029 0.901562384263535 0.03223320821225488
145.40766819018933 61.142583443856566 162.87320499133713 0.23837954144249304 -0.8528543972564547 0.4645584691962852
86.4352796532628 191.58750578452305 114.92167396841738 -0.5253136538039007 0.8364090363186096 -0.15641447852347348
178.6965241059504 163.71841224553873 82.93010100386478 0.6694706566427143 0.4755039140836408 -0.5707057627057138
124.51893284103448 119.26380614669405 203.79143188153722 -0.032129851838455174 -0.1001838105841227 0.9944500373159446
50.53598860707079 116.4511788678146 129.2148892575368 -0.990209937748371 -0.1366073702691711 0.028682844567946116
91.71166380163984 143.19752259435998 60.251951413118434 -0.4569844107531748 0.20975812735508925 -0.8643880935882099
134.37040387506622 65.51447343742852 80.86828021803517 0.09544682562893318 -0.7962383652236659 -0.5974063685828132
186.6221283047894 82.75384275170387 105.7771871523523 0.7721073336543565 -0.5729883093537443 -0.27483570121273904
82.97362616532985 137.52811953401306 189.56009515695612 -0.5701421113010897 0.1363392843047535 0.8101540424366241
108.72701611666484 119.79144319248155 52.32026266280691 -0.23663537792456826 -0.09335090400826793 -0.9671035656202162
70.3263879412975 81.44923362412645 100.99696596952042 -0.7339240100842074 -0.5898830144505769 -0.336739627434338
168.30673068197095 104.72950038581213 188.32460556172845 0.5349226972542209 -0.2884032584069913 0.7941544361788198
120.46778229465025 180.12013008847137 182.664264220717 -0.08459230387658308 0.6879063725520769 0.7208529425112276
153.8731567118952 147.45151718937217 57.55579726866513 0.34800772742677033 0.264847412449782 -0.8993033246741112
92.58380911048349 69.91780067612385 165.98816134425465 -0.4456901177093565 -0.7392152204594167 0.504897194305292
116.3790789224125 50.75879380155635 133.11579208852405 -0.13754106549582368 -0.987324607594453 0.07919958674597305
108.6922895064218 80.35807376802356 68.24383560974904 -0.23708508797692562 -0.6040135487176436 -0.7608930897468397
67.29599848815651 167.99037996493232 100.20169121373019 -0.7731675927459659 0.5308259513718249 -0.34703844582064
162.92954732043185 80.67454613767835 177.2588136927122 0.46528810308769547 -0.5999152274322929 0.6508522881729112
147.1498860888992 186.89516315841257 82.6211771130472 0.2609412857925304 0.7756431385445812 -0.5747063310923698
90.53809809418077 153.39651148868478 189.7429859875839 -0.4721821018624609 0.34183516561363336 0.8125224810616926
148.75401136943623 53.01501297072451 130.98912065703416 0.2817147289489282 -0.9581065401356577 0.05165916416775661
92.09603480394854 111.62812482061125 194.1442258653871 -0.4520068012956677 -0.19906598263906708 0.8695185944753576
130.6882888115547 202.63265161234898 111.8663640942566 0.04776338787302146 0.979443817823737 -0.19598078096015797
88.65805519528817 94.53397475682094 68.35888069364901 -0.49652868174969994 -0.4204354473346162 -0.7594032544204997
75.13160031906429 181.23723784693877 145.19119416842398 -0.6716964475645649 0.7023729324907895 0.23557620005729055
90.86213912069233 162.7890952346004 68.89557612920935 -0.4679857663728007 0.46346924675732204 -0.7524530415797805
200.08647886825554 145.66881784509496 110.48424246645955 0.9464708478147573 0.2417614328554128 -0.21387927393862277
148.35996743969082 190.34189278803072 165.65856708421785 0.276611854955851 0.8202783318833297 0.5006289443695655
99.08637630296326 129.8090858469149 198.9434990030711 -0.3614817883584141 0.03637769809524636 0.9316692437590145
134.52085685379197 200.3707844386459 104.12877128262397 0.0973951936517996 0.950152608633073 -0.2961827080727276
136.8803538617345 140.30594392022672 202.4205466962332 0.12795071046017237 0.17231214607908232 0.9766970564132762
173.66975238366666 66.80638300595778 114.28815176216332 0.604373897742381 -0.7795081195809663 -0.1646185992985842
144.2525484398667 119.23400666005921 52.13367031986911 0.2234207257169993 -0.10056971432194767 -0.969519938877634
65.4939970821317 130.4096285085758 80.43483664260717 -0.7965035342899289 0.044154733340789946 -0.6030194684977057
129.72565913426902 200.58001412505587 150.26973793664968 0.035297321086104755 0.9528621357816094 0.30134340762302103
101.98539063515497 67.8530696695404 84.11832150197515 -0.3239395152142583 -0.7659535137329655 -0.5553182918677136
73.00155761568988 75.4842878331776 107.17002218827649 -0.6992805281573442 -0.6671291396894897 -0.25679846946028895
166.887780112 191.1779262778669 111.09128614848397 0.5165472689976691 0.8311049764033527 -0.206018050395183
131.8063943293923 125.52642992181185 204.05618446805585 0.062242868808499 -0.019082751595288022 0.9978785867399101
97.4437651974248 139.08103782479176 197.309358618686 -0.38275362344697245 0.15644959628064947 0.9105071046190881
174.60598073196817 72.0006470378753 101.0833996771355 0.6164980669770549 -0.7122423331018479 -0.335620309801405
91.83670653482207 58.364239022533454 130.95012755817538 -0.45536510573915995 -0.8888339934921853 0.051154203032574126
71.09075075478651 126.93596218415674 73.7357516903248 -0.7240255017510165 -0.000829290544460834 -0.6897727053829991
147.0679337644778 159.04879270885795 194.32816142097738 0.2598800021299898 0.4150322806119909 0.8719005623022194
169.62608491683548 83.84496827669892 79.21309257104402 0.5520083516813711 -0.5588582196749686 -0.61884107004605
130.0173169230358 157.58822251176227 197.8391476667872 0.039074293227606624 0.3961178776451989 0.917367879652774
109.79218116720159 202.14842824947524 122.58037301901427 -0.22284147672621618 0.9731731190038235 -0.057234226637991874
90.85046627883028 175.05267705551373 175.4466700562641 -0.46813692982607774 0.6222827901516929 0.627385004613625
145.17216152999825 114.91642666672598 201.07218236846435 0.2353297271432044 -0.15648243114832977 0.9592357209073343
86.71266812245705 192.82498644381644 124.36742524130982 -0.5217214695356509 0.8524344268818499 -0.03409187721691516
188.04634195815353 83.71747402499857 146.0498157143714 0.7905509189090071 -0.5605092718855404 0.24669536019646957
91.74021749714777 127.60343314348674 195.69724889901266 -0.4566146400265765 0.007814467022620319 0.8896302628724769
184.6860508192081 75.89422790452579 122.15768656433853 0.7470351051438502 -0.6618204104568015 -0.06270802169983773
176.41438714630598 84.5256350256121 168.43760445510188 0.639916953461616 -0.5500435764618998 0.5366175143110836
203.1373072991127 121.04824663852443 115.57128751063176 0.9859791155026252 -0.0770752831063917 -0.1480019747392934
66.80143556142313 145.18109644176482 171.81639177477092 -0.7795721890517595 0.23544543436628868 0.5803728538561373
70.86119031289485 173.01841929132578 153.33756884837177 -0.7269983124463243 0.5959391257617946 0.34107185765827214
107.9387065577324 142.24093591625774 53.7380769792091 -0.24684399692136236 0.1973703174858551 -0.9487428518620941
189.95762474298812 144.32129408280667 85.77817740543222 0.8153020557237517 0.22431098268332914 -0.5338231364227892
54.18724108940975 152.42020543026172 130.8786203360931 -0.9429261708183145 0.32919198951387874 0.050228183580588975
55.38608230172751 117.66598057029857 99.66410284642167 -0.9274011615937903 -0.12087567249030601 -0.35400022213906146
175.90650688671695 174.29899851921823 163.5224139839975 0.6333398975228822 0.6125226433465196 0.47296573405850156
86.33227313482953 159.0394185377194 184.29345557203487 -0.526647589551547 0.41491088497435114 0.7419509916088434
83.9893311950397 62.887719129470085 128.62055870868627 -0.5569887180129539 -0.83025486752823 0.020986256263743702
53.40356853034699 107.11070593604163 114.71547084459245 -0.9530747406067471 -0.2575666156948767 -0.1590848116473395
170.94339130929063 152.07779449781518 68.6646677958897 0.5690674865228004 0.32475776350447005 -0.755443307486536
59.44448657386151 160.7636250691551 143.09964682595077 -0.8748447737132671 0.4372393818849403 0.20849063488669725
125.50733375099388 53.45596077857505 103.50585940140424 -0.01933004725467651 -0.9523962603137135 -0.3042494250012401
165.07184934172614 87.73963727586951 72.48315300321731 0.49303094200629544 -0.5084222056996954 -0.7059938746022104
195.6376195106107 114.54961185231808 160.11787165396797 0.8888580615204701 -0.16123268774516855 0.42887686679575204
67.98370733239295 102.4966719060882 83.6457324811794 -0.7642617543072655 -0.317318416134574 -0.5614383258070527
97.7913563170156 157.51598029673562 191.64177040219192 -0.378252313946962 0.39518234002506647 0.8371117638201495
173.72282115576863 153.9010036052673 182.28329212588065 0.6050611390283427 0.3483683450565565 0.7159193489495033
98.71794295501245 198.52783007765845 133.84274606321813 -0.36625300498559377 0.9262863257920029 0.08861365013232508
74.57906678777324 167.19216769947315 87.00545266193544 -0.6788517639501005 0.5204890921972695 -0.517929905957842
117.4099922390387 64.59685971905793 82.5386883434399 -0.12419072469517362 -0.8081214747596746 -0.575774561727015
127.44437560350914 69.68181523409501 178.74317950671937 0.005754669820113319 -0.7422712349897045 0.6700748446868606
58.839807380351715 111.22428977168481 94.31600531078439 -0.8826753770998224 -0.2042956517523334 -0.42325815448349663
56.84546864665572 151.22922120040164 148.31231969107637 -0.908502089527898 0.3137687283139296 0.2759948159942551
64.49834029060662 91.39799219366779 155.08857372187225 -0.8093973026339468 -0.46104646213846434 0.3637473934456393
56.75249470702238 150.5271717043504 105.21265064981296 -0.9097061032501634 0.304677178248516 -0.2821464562313785
140.65050906197018 51.96864080253607 139.11970046371678 0.176774269126783 -0.9716570732642311 0.15695027795541017
84.25055556578732 111.98089503005711 189.52871249648436 -0.5536058590289131 -0.19449760385836418 0.8097476365771091
75.3819828063075 161.5220924430639 172.89917030126162 -0.668453991112309 0.44706154419922167 0.5943948497961877
50.25597194191096 131.5413072113199 119.74334193780248 -0.9938361571884102 0.0588099871965796 -0.09397381587927363
193.62142993843204 106.05369069062964 159.95095748646426 0.8627483804510755 -0.271254976811323 0.42671532616503827
117.81930942289235 50.3746913516739 124.31571330216588 -0.11889006186360596 -0.9922987392945622 -0.03476154749849932
81.64121541485711 90.71658540432396 177.8824418265956 -0.5873968477744481 -0.4698706888846936 0.6589282805826937
71.75264820494337 144.216562506893 178.1297222276779 -0.7154539211999047 0.22295470741897205 0.6621305649789936
158.6831257778888 153.15039998494083 61.61449303117635 0.4102968891205489 0.33864801845300213 -0.8467431619894282
161.39680090554728 182.3143827493413 168.4741792989749 0.44543901716585454 0.7163219729259425 0.5370911590128838
151.20737820120024 178.6025679881288 179.09708454083201 0.3134858611914043 0.6682539237001918 0.6746579194616941
182.52455721653064 169.15317421068085 160.21237495079518 0.7190437349978068 0.5458841519124686 0.43010068571348337
116.53108016405554 202.86935904557708 136.85750858391097 -0.13557264744812833 0.9825091821494054 0.12765486381651087
184.3809075558528 90.1880650898805 163.2662556137217 0.7430834959317895 -0.4767150338010813 0.469648479846176
94.06120647377877 58.3462848926487 114.1691121509223 -0.4265578027223677 -0.8890664997066992 -0.16616016380572005
115.18699533799793 98.57630833762651 56.179981127241746 -0.15297856335149015 -0.3680871751149118 -0.917120161522381
203.15223766017078 121.76365887230476 138.67672175498217 0.9861724638716755 -0.06781068541433884 0.15121369794071712
177.1875500685002 128.62666825400737 185.6642324462972 0.649929423316501 0.021065374954770302 0.7597025698821187
104.48585696844552 143.91389664619197 198.902446855421 -0.29155844381707435 0.21903518060336657 0.93113761791532
175.31116923847182 187.16509542903748 123.97996377065628 0.6256302672684775 0.7791387649448002 -0.03910950827950949
148.57211942164327 199.9279349986386 113.61761006050467 0.2793592258695062 0.9444177026500724 -0.17330212301858747
112.46989016157251 107.00942251211193 200.15860250021166 -0.18816511057274654 -0.25887823734638793 0.9474048497825908
136.49860838817256 178.51674612905794 70.26615025434701 0.12300710163393622 0.6671425295138299 -0.7347040889102951
109.22344799936448 134.148642831696 52.19478958900295 -0.23020657861480848 0.09257501724548055 -0.9687284435508554
178.38026569828412 87.92845881569352 84.61590668355907 0.6653751061678854 -0.5059769643137333 -0.5488745573224673
157.72026963868439 72.44599565588283 81.79984465349071 0.39782788964885235 -0.70647506273138 -0.5853425970798923
66.66131532577467 133.50310429699448 174.74810117990887 -0.7813867479179661 0.08421528486136323 0.6183385286183485
170.6141663397006 133.79381696404803 190.36068927617453 0.5648040189031417 0.08798001766443983 0.8205217466482069
99.86049521366962 196.83615069810384 108.31075882694849 -0.35145693843991693 0.9043790559195004 -0.24202591521693229
187.8924689743621 167.28337551814286 101.85471656412204 0.788558261776251 0.5216702346301846 -0.3256317461263656
131.5813773155499 51.49246028623857 142.50970110180415 0.05932889556526684 -0.9778236171168277 0.200850830119194
138.3911911595481 189.06314040075645 82.48780203626623 0.14751607303222086 0.8037184719082681 -0.5764335400638924
129.11988436419557 53.65691322981914 151.06711684652234 0.027452529968862632 -0.9497939234677656 0.31166947483193913
121.20971091360843 199.79663381580863 152.1008178628323 -0.07498431865308937 0.9427173506320725 0.3250559163795946
154.78880162212067 54.97942234379845 125.06420598371969 0.35986534087180344 -0.9326674133152234 -0.025068557579387536
144.81794403388724 166.9865161361791 190.61232425950453 0.23074260598144575 0.517825901789421 0.8237804229410068
186.3538886957965 87.30343427380309 97.60226256609653 0.7686336272441919 -0.5140710402252902 -0.3807010804701305
173.5715588371548 91.02450643320168 77.00217834642513 0.603102290043445 -0.4658831075731458 -0.6474724378862324
58.73764113583593 138.26905412216087 161.29558545194834 -0.8839984312893561 0.14593439681637993 0.44412827573100655
60.99160268804134 166.96373376603037 129.9529422250446 -0.8548095999994647 0.5175308698009631 0.038240640054967634
79.30615820481921 69.22927043188352 108.27118103072654 -0.6176358688834601 -0.7481316960388045 -0.24253844819053952
163.07553606107868 63.66800242494029 101.49427160306057 0.467178659169628 -0.820150188747212 -0.33029951303987864
190.38117538690696 171.09849131523674 128.03830163927697 0.8207870420474873 0.5710760336083496 0.013446019674656425
153.38125745231244 64.12398407669119 163.2431273050026 0.34163762564507166 -0.8142452204520697 0.46934896794875164
179.6511960629931 145.07176939105545 180.5181380861925 0.6818336708494317 0.23402964764381565 0.6930605812767743
59.177575828022086 142.50490772475587 93.49410475926496 -0.8783012713283853 0.20078875582434422 -0.4339017772692961
199.63457955028892 102.29801218877061 135.77257383705742 0.9406187457949874 -0.3198910620464826 0.11360494479483856
99.19268975108812 55.48551007933686 135.68099234581692 -0.36010502782843673 -0.9261135705861582 0.11241896329729226
181.83571068557552 181.18792150786973 122.56802569222202 0.7101231635013666 0.7017342852611984 -0.0573941246798495
160.93052622285913 68.2494876234956 90.12148205610654 0.43940075398677964 -0.7608198960956282 -0.4775772849507052
117.80151417506531 61.99740787037294 167.65684782367936 -0.11912051055341477 -0.8417844098630802 0.5265067058233536
124.92920410801202 74.93395481217738 70.01081556230744 -0.02681683361807802 -0.6742559594382623 -0.738010676478795
154.59412047518452 134.70702740647863 198.70840009201703 0.3573442174978572 0.09980610472000292 0.9286247098163305
87.75481367900503 96.39445203191302 186.04273184908976 -0.5082256710825559 -0.396342242528969 0.7646041420498544
122.32744377425747 52.408478821420445 146.42165251936075 -0.06050966363302941 -0.9659611652237705 0.25151065163637343
93.22051208747843 101.47952577026139 62.41997219374201 -0.4374448059119604 -0.33049047176558677 -0.8363121964032374
172.5379705422518 77.46061525487185 164.8823309468566 0.5897173082394692 -0.6415356739850835 0.4905766763384695
108.13027844393173 52.351797209852776 132.8743364389102 -0.24436313851422253 -0.9666951928275994 0.07607273295662004
178.03049117140395 181.4664773315616 107.19544956592682 0.6608455215152027 0.7053415867853096 -0.2564691845904323
180.72828933565324 83.75734573889184 92.26857075329906 0.6957820426787523 -0.5599929326742833 -0.4497724585172356
177.6771005481358 135.28980563663055 69.32817843572978 0.6562691083674668 0.10735309034745605 -0.7468508361081354
134.62926561413443 56.28530886502669 157.0691729828792 0.09879908850212925 -0.9157561659540704 0.3893961795244651
154.2787244087729 153.1062479529684 194.35921178612728 0.35325983435344327 0.3380762490671898 0.8723026649330133
139.42396592548445 201.94328676293745 113.14080666667329 0.16089051962554318 0.970516534096574 -0.1794767331433141
92.00278032296069 117.91813255128125 58.76772978625908 -0.45321444803210703 -0.1176103010712089 -0.8836087828767277
203.5496335893738 136.49189029220497 130.60361152364652 0.9913187463011371 0.12292010220415646 0.04666681589803846
159.6461316899856 69.70573798402694 167.181165061819 0.42276782815314157 -0.7419614350682863 0.520346607897164
183.06436270581895 130.6573244302903 179.97489605843487 0.7260342230745787 0.047362398734657855 0.6860255899823214
63.15881430639187 106.40952182462111 165.2526288997696 -0.8267441814764068 -0.26664695901811564 0.495372039624056
115.93936264958657 149.47556085438805 53.955904648744266 -0.14323539692325085 0.2910588041231294 -0.9459219807207424
56.13865087769537 96.31466814057514 126.91050562129097 -0.9176553887892338 -0.3973754449549969 -0.001158953363235397
78.60395862064067 90.34419916750878 79.28099074649522 -0.626729362592066 -0.47469309547385674 -0.6179617877946747
90.5922195431825 194.89956713236012 132.20102926797162 -0.4714812283970152 0.8793002736643373 0.067353396373629
133.10249748171273 116.38828457982564 203.24355330339034 0.07902742141560119 -0.1374218521131102 0.9873550026339074
145.46957717201624 197.3394973399013 152.96455724746625 0.2391812635588739 0.9108974014491233 0.3362413525960406
64.68240940828744 154.68682691169596 90.76623234598026 -0.8070136051762827 0.35854476705122984 -0.469227760347316
88.06508601384459 76.63424165116018 170.7068788503246 -0.5042076403283527 -0.6522372228546985 0.5660046471163509
92.96154093217154 126.37954457904506 57.68963469034105 -0.4407984857268642 -0.008034905736272148 -0.8975701283302118
96.99091615951801 73.08570439503691 80.57121564723472 -0.38861802435226617 -0.6981908262750982 -0.601253358621669
192.69890187371317 150.34811620839957 93.81192741198616 0.8508016300662158 0.30235840725718177 -0.429785969800749
168.2895185945528 187.17420154646805 152.24221706734818 0.5346998004992591 0.7792566892834504 0.3268870379091968
